# .PCD v0.7 - Point Cloud Data file format
VERSION 0.7
FIELDS x y z rgba
SIZE 4 4 4 4
TYPE F F F U
COUNT 1 1 1 1
WIDTH 1125
HEIGHT 1
VIEWPOINT 0 0 0 1 0 0 0
POINTS 1125
DATA ascii
-2.8484221 -1.2875581 -10.178691 14004133
-2.9474142 -1.2819123 -10.64787 10911088
-3.0496354 -1.2800591 -10.748013 9332829
-3.1374388 -1.282137 -10.866372 9203563
-3.2515657 -1.2845168 -10.971549 11832195
-3.7473962 -1.2856785 -10.949806 8809059
-3.8549035 -1.2801387 -10.972787 9992301
-4.1625419 -1.2872078 -10.864587 10451823
-4.2597833 -1.2827312 -10.765384 9466729
-4.3197112 -1.2806169 -10.777777 9532779
-4.4474506 -1.2818489 -10.867966 8150615
-4.5698733 -1.2821265 -10.862254 9138797
-4.8505163 -1.2871788 -10.644409 8284259
-4.9513941 -1.2826618 -10.669066 7955036
-5.1599479 -1.2861755 -10.367968 7955039
-5.2598362 -1.2895521 -9.8521042 7296078
-5.2574158 -1.2894015 -10.259945 4668469
-5.2868686 -1.2887434 -9.9266815 8150874
-5.3466115 -1.2853265 -10.250185 5589317
4.1222963 -1.2763578 -11.177231 7498107
3.5228696 -1.2757308 -11.535297 11579090
3.2787395 -1.2789433 -11.354264 10591936
2.8719521 -1.2781382 -11.25514 10722753
2.3308392 -1.2710441 -11.383686 11775960
1.808477 -1.2766966 -11.248731 12302024
1.410055 -1.2710741 -7.9529428 16382716
1.4046649 -1.2729805 -7.8402276 16250877
1.3544645 -1.274812 -8.1534805 16711422
1.1672014 -1.2793351 -8.4383507 16777215
0.96550286 -1.2717932 -7.7574201 9998499
0.93523031 -1.2720964 -7.9384532 12432833
0.8152383 -1.2746001 -8.0331221 11774145
0.76218849 -1.2792844 -8.154623 12565203
0.69222027 -1.2782515 -8.301178 16711422
0.46356377 -1.276984 -8.2718477 16316157
0.35307622 -1.2723075 -8.5640535 15724794
0.24554341 -1.2728111 -8.4473705 16645630
0.045179404 -1.2773089 -8.355484 16777215
-0.13461913 -1.2707869 -8.3585005 16711679
-0.17880848 -1.2782763 -7.8890686 16777215
-0.22464778 -1.2709163 -8.4613943 16711678
-0.2340046 -1.2735506 -8.5535021 16777214
-0.42937952 -1.2716936 -7.462431 16711678
-0.43705672 -1.2795016 -7.5370393 16777215
-0.5490666 -1.276984 -7.9646511 16777215
-0.7457301 -1.2741144 -7.9430809 15789300
-0.74974591 -1.2758429 -8.1496248 15789559
-0.8130787 -1.2723349 -8.6202059 16711423
-1.1635021 -1.2723386 -8.2679071 16513789
-1.2337781 -1.274251 -8.2682972 16645630
-1.3317258 -1.2799104 -8.5591993 16316669
-1.3461434 -1.270878 -8.365077 15197170
-1.3570303 -1.2726299 -8.6584072 16711422
-1.4510583 -1.2712612 -8.661397 15591667
-1.6209757 -1.2792221 -8.5776243 16711423
-2.2351885 -1.2764176 -8.6533365 15584205
-2.2411821 -1.2734485 -8.4579945 14068645
-2.3522847 -1.2776244 -8.6471777 14596537
-2.4035916 -1.2781487 -8.7878752 13872037
-2.875561 -1.275329 -10.55159 12159355
-3.1553013 -1.2741253 -10.939026 10913414
-3.4438698 -1.2792573 -10.975113 9795182
-3.6596277 -1.2737013 -11.06394 8940132
-3.9567447 -1.2713577 -10.954478 9662827
-4.661747 -1.2746391 -10.869245 9598062
-4.8451967 -1.2747095 -10.750892 7428949
-5.1548791 -1.2762972 -10.564037 8217695
-5.1684833 -1.2795175 -10.444061 8085850
-5.2586498 -1.2734568 -10.358788 4669238
4.1323051 -1.2637672 -11.249464 7959687
4.1303649 -1.2670158 -11.329163 9144479
3.9822941 -1.2697057 -11.31735 9077916
3.7355142 -1.2671554 -11.092555 10196399
3.5290585 -1.2661324 -11.463199 11118280
3.4612117 -1.2603877 -11.560474 11117510
3.258574 -1.2689298 -11.298807 10394556
3.2512767 -1.2641715 -11.46316 11051972
3.0407233 -1.2601815 -11.36006 10987208
2.9275799 -1.2610165 -11.266839 10591679
2.9004323 -1.2625906 -11.407704 10263481
2.8331888 -1.2601259 -11.448085 10526140
2.5375676 -1.2609602 -11.427508 11973597
2.4412792 -1.2636137 -11.527548 12170977
2.0380638 -1.266976 -11.38915 10329793
1.843583 -1.2647395 -11.346717 14867690
1.2659292 -1.2648329 -8.3473425 16777215
1.2607759 -1.2641659 -8.4515924 16777215
1.2482523 -1.2642882 -8.5511332 16777215
1.1773823 -1.2669266 -8.5377579 16777215
1.1792411 -1.2665579 -8.6230736 16777215
1.0842348 -1.2605755 -7.5417662 16645887
1.0628666 -1.2602335 -7.8385596 15198190
1.0692593 -1.2636254 -7.9498816 16711422
1.0301919 -1.267566 -7.7567611 15658484
1.0269295 -1.263626 -7.6799397 16250876
0.9484008 -1.2676175 -7.8554368 10722219
0.87757856 -1.2677202 -8.3120852 16777215
0.72576952 -1.2636448 -8.7909317 16777215
0.68573093 -1.2673236 -8.2265511 14540016
0.67331249 -1.2685341 -8.1422653 11314370
0.62368196 -1.2618937 -8.0567389 13815014
0.56788522 -1.2622638 -8.1480227 15986937
0.25578788 -1.2657317 -8.5566301 16579837
0.15271929 -1.2665061 -8.3563108 16711422
-0.044159688 -1.2638798 -8.3344822 16711422
-0.041582029 -1.2661645 -8.6483011 16777215
-0.051397756 -1.2687731 -8.4516058 16777215
-0.064976573 -1.2643179 -8.5764732 16777215
-0.093906313 -1.2698169 -8.1533651 16711422
-0.15501587 -1.2657818 -8.4601946 16777215
-0.22703663 -1.2669096 -8.6557903 16711422
-0.24715103 -1.2663491 -8.2396965 16448253
-0.2600033 -1.2676286 -8.172761 16448253
-0.43937629 -1.265021 -8.2633467 16579581
-0.526811 -1.2674549 -7.8704348 16711679
-0.53839141 -1.2682194 -8.5508366 16777215
-0.53335959 -1.2627552 -8.6320543 16777215
-0.55579346 -1.2684723 -8.3488693 16711422
-0.55285901 -1.2654134 -8.4619904 16777215
-0.61935228 -1.2650722 -8.5541611 16777215
-0.6531105 -1.2666546 -8.2900953 16711422
-0.7389766 -1.2683228 -8.2663565 16645886
-0.94548553 -1.2617788 -8.1599903 16184828
-0.94764602 -1.2630332 -9.1621532 16711422
-1.0520381 -1.2687815 -8.2461967 16382205
-1.3429675 -1.2600827 -8.4403343 14802670
-1.4535776 -1.2691389 -8.4439154 15855095
-1.5263617 -1.2673854 -8.4733114 16578813
-2.0202579 -1.2649925 -9.6930084 16777215
-2.2455721 -1.2670869 -8.548255 15254723
-2.3511307 -1.2668163 -8.7690525 13608865
-2.9495518 -1.2654132 -10.745044 10516584
-3.0485466 -1.2655193 -10.853599 10188395
-3.0428138 -1.2631775 -10.951602 10912635
-3.2483554 -1.2635832 -11.050915 10780531
-3.5505495 -1.2638119 -11.049079 8874591
-4.0535583 -1.2665586 -10.952924 10320756
-4.1496105 -1.2615989 -10.951185 9466474
-4.2525144 -1.2644548 -10.855589 9137249
-4.7560811 -1.2648638 -10.864268 9598317
-5.3609562 -1.2672815 -10.363566 3421484
-5.3817053 -1.2694327 -10.131906 5061943
4.0804405 -1.2548225 -11.252808 9012638
3.9388294 -1.2519438 -11.269529 9472159
3.6696544 -1.2527264 -11.075348 10591674
3.6674418 -1.2526182 -11.145452 10526139
3.6603618 -1.2579275 -11.337749 10328759
3.4794374 -1.2501935 -11.468982 11446990
3.1559904 -1.2550097 -11.457801 10723525
2.6459107 -1.258235 -11.459915 11709905
2.4555037 -1.2546611 -11.459312 12302307
2.2484643 -1.2541475 -11.369364 11118283
2.1551251 -1.2518014 -11.376564 10855368
2.0576131 -1.2539408 -11.450709 10658246
1.9290859 -1.2567663 -11.377572 11380937
1.7824054 -1.2529396 -11.256329 11380668
1.4107121 -1.2593403 -8.0571947 16777215
1.3482802 -1.2586217 -8.2507534 16777215
1.2160317 -1.2596492 -8.8473473 16777215
0.97834581 -1.2516632 -7.6724234 11578551
0.86066169 -1.2593617 -7.9563513 10853040
0.82508999 -1.2522372 -8.1669207 16185341
0.74138463 -1.2542261 -8.8672466 16711422
0.58437902 -1.2533379 -8.0733175 14209255
0.54158163 -1.2546405 -8.2601175 15987708
0.44969893 -1.256333 -8.3457041 16184828
0.064805768 -1.2576979 -8.4531813 16711422
-0.14343448 -1.2577769 -8.5512342 16777215
-0.15552093 -1.25657 -8.1650562 16382202
-0.1559999 -1.2506847 -8.6476631 16777215
-0.31962314 -1.2501061 -8.1766605 16513789
-0.35793173 -1.2541931 -8.230711 16382460
-0.36190605 -1.2506663 -8.4458714 16776958
-0.74477369 -1.2570645 -9.3125143 16777215
-0.82592934 -1.2576238 -8.1422882 16645630
-0.9419238 -1.2524173 -8.4676895 16711422
-0.95211089 -1.257076 -8.3611097 16777215
-1.0465015 -1.2507668 -9.1201077 16777215
-1.1456455 -1.2571982 -8.3438301 16513789
-1.2583866 -1.2521528 -8.3493614 14801900
-1.2805873 -1.252105 -8.9482918 16645630
-1.4590608 -1.2584702 -8.5513124 15460085
-1.7508721 -1.2598091 -8.6744156 15657460
-1.9454434 -1.252809 -8.7508812 15261679
-2.0540576 -1.2553005 -8.7507334 16710909
-2.2204297 -1.2588211 -9.4511805 15724023
-2.2479091 -1.2598425 -8.7566957 14464176
-2.4168305 -1.2538397 -8.847353 13805992
-2.8897467 -1.2557971 -10.659025 10845032
-2.9702458 -1.2550809 -10.844103 9925995
-2.9729781 -1.2562835 -10.944449 8676959
-2.9887402 -1.257712 -11.045586 9007475
-3.0481687 -1.2595067 -11.158818 9992563
-3.0584157 -1.2578377 -11.045227 10715257
-3.1554036 -1.2586278 -11.051412 10056301
-3.3506722 -1.2518414 -11.046242 10845555
-3.7415035 -1.2586318 -11.046484 8545629
-3.8461385 -1.2557522 -11.04883 9071203
-4.3446331 -1.2551891 -10.852578 8809573
-4.5513978 -1.2520057 -10.943392 7101271
-4.9499426 -1.2527062 -10.744328 6377805
-5.0538077 -1.2595252 -10.648052 7035987
-5.2529511 -1.2564517 -10.449146 5259576
-5.3110757 -1.2589325 -9.9605236 6310471
-5.3517866 -1.2559133 -10.049992 5258808
-5.4324512 -1.2565633 -10.247408 4011053
4.0739679 -1.2462012 -11.339271 10000051
4.0642061 -1.2446111 -11.037546 6249073
4.0389738 -1.2451493 -11.42369 9866664
3.8947616 -1.2480669 -11.218714 10063789
3.8363948 -1.248655 -11.162088 9604262
3.6610405 -1.2446163 -11.254456 10592191
3.5560799 -1.2487038 -11.330385 10854849
3.4816265 -1.2419585 -11.325767 11578318
3.4538558 -1.2464342 -11.624118 10723008
3.327908 -1.2433898 -11.459377 11052227
3.0620377 -1.2426538 -11.408381 11118538
2.8511524 -1.244994 -11.354432 10460346
2.7633035 -1.243462 -11.470237 10591677
2.3537829 -1.2429985 -11.423083 11446994
1.9710482 -1.2404643 -11.430762 11184325
1.8648815 -1.2405717 -11.43531 14737138
1.753296 -1.2491423 -11.1856 9931432
1.4096079 -1.2444804 -8.152441 16777215
1.2527596 -1.2417443 -8.6522131 16777215
1.0270212 -1.2417623 -8.9278927 16645630
0.95657891 -1.2468051 -8.9203262 15065833
0.82160187 -1.2428946 -8.939126 16645374
0.77425337 -1.2485881 -8.0695095 15065836
0.66777778 -1.2414213 -8.8677711 16119034
0.63529152 -1.2428448 -8.7471399 15856635
0.45029771 -1.2417779 -8.4533806 15856122
0.0539205 -1.2488108 -8.5531769 16711422
-0.11829451 -1.2464333 -8.0754652 16645630
-0.15824237 -1.2444448 -8.2207794 16382203
-0.23959419 -1.2403471 -8.7465239 16711422
-0.24650012 -1.2424005 -8.9241724 16777215
-0.25053138 -1.2497853 -8.8315659 16711422
-0.47211468 -1.2483621 -8.3314447 16711422
-0.57943302 -1.2463845 -9.2415676 16777215
-0.63646626 -1.2433245 -8.4463406 16711423
-0.63045996 -1.2433645 -9.1784 16777215
-0.63566101 -1.2477114 -9.3139801 16777215
-0.64076298 -1.2406048 -9.2569828 16777215
-0.65109855 -1.2482479 -8.3231621 16711422
-0.74121761 -1.2434839 -8.3382196 16711422
-0.81531924 -1.2446538 -8.5608244 16777214
-0.86033851 -1.2411797 -8.4574728 16711422
-0.96471077 -1.2401507 -8.2355614 16579582
-1.2723356 -1.2495164 -8.5673895 16777215
-1.3683367 -1.2498782 -8.7521343 16711422
-1.550449 -1.2450135 -8.5371666 16513533
-1.6583747 -1.2485753 -8.6465988 14800612
-3.0519075 -1.2422349 -11.25358 10058097
-3.1479259 -1.2403052 -11.164026 9991020
-3.2523777 -1.240983 -11.146088 11176323
-4.2503777 -1.2444814 -10.944323 8086103
-4.8415375 -1.2445292 -10.856513 6114884
-4.9488487 -1.2429303 -10.854837 5786434
-5.441442 -1.2447995 -10.349494 3027240
3.7516055 -1.2393316 -11.139538 10327989
3.358537 -1.2326105 -11.542974 10724033
3.1767764 -1.2338057 -11.512782 11513815
2.9490387 -1.2375023 -11.336358 10525886
2.7379332 -1.2339261 -11.538125 11447245
2.5463986 -1.2381212 -11.374091 11842006
2.1374078 -1.2378944 -11.4283 10921419
1.4122728 -1.2368364 -8.2593737 16777215
1.3483723 -1.2379067 -8.3523045 16777215
1.1502939 -1.2351637 -8.7640381 16777215
1.0739833 -1.2326609 -8.7725391 16777215
1.056308 -1.235898 -8.8625517 16711422
0.96112239 -1.2319959 -8.8606215 16447996
0.8548696 -1.2303603 -8.8554211 16711422
0.64109224 -1.2317939 -8.6630068 15264250
0.54467511 -1.2375464 -8.8642607 13816039
0.43291003 -1.2348816 -8.5502415 16514301
0.35069504 -1.2307783 -8.6450281 15000307
0.25463313 -1.2303423 -8.6451149 16448509
0.14475404 -1.2314125 -8.4404449 16645630
0.0489121 -1.2357 -8.6509638 16645630
-0.045931034 -1.230329 -8.734828 16777215
-0.45774153 -1.2305032 -8.4479256 16777215
-0.47528249 -1.2345196 -8.5448837 16777215
-0.61182517 -1.2316513 -9.095088 16777215
-0.72150344 -1.2336037 -9.2473412 16777215
-0.75607222 -1.2310827 -8.4467545 16777215
-0.76835233 -1.2381784 -8.5278578 16777215
-0.83544189 -1.2355434 -8.3832035 16711422
-0.9070183 -1.2391096 -9.3615274 16777215
-1.057057 -1.2310202 -8.3330374 16711422
-1.2354069 -1.2358816 -8.4557114 16711422
-1.2738632 -1.2366672 -9.1348925 16447997
-1.3174034 -1.2392132 -9.1298494 16711422
-1.3538625 -1.2395866 -8.8439884 16711422
-1.4357502 -1.2302697 -8.8564663 16645374
-1.4496572 -1.2395935 -8.7368107 16514045
-1.6690052 -1.2379105 -9.2173796 16777215
-1.8545115 -1.2364339 -8.725769 13550296
-2.1471379 -1.2398901 -8.7497492 15126216
-2.3404565 -1.2392623 -8.839076 12818834
-2.4233487 -1.2359208 -8.9572325 13806500
-2.9789393 -1.2308466 -11.297625 8284768
-3.4456694 -1.2385334 -11.043145 10123377
-3.9453733 -1.2378433 -11.05145 10387324
-4.4517426 -1.2368755 -10.944748 8348249
-4.6599097 -1.2310715 -10.942466 7954521
-5.1416693 -1.2339976 -10.625188 5391931
-5.2413421 -1.2354457 -10.537123 6574669
-5.3563299 -1.2324802 -10.449706 3226420
-5.412797 -1.2334722 -10.163611 3682349
4.1515336 -1.2287278 -11.438464 12106212
4.0738134 -1.2253962 -11.151817 7761792
3.5499716 -1.222476 -11.279695 10986950
3.4849823 -1.2299473 -11.285574 11578577
3.2589636 -1.2285329 -11.52693 11249610
2.6787543 -1.2211794 -11.531626 12171228
2.0633278 -1.2215599 -11.541774 10591940
1.7787371 -1.2238586 -11.331876 12697041
1.4173861 -1.224774 -8.3607855 16777215
1.2288624 -1.2273445 -8.7350655 16777215
1.1495019 -1.2230561 -8.8476467 16777215
0.97254473 -1.2204388 -8.7925987 16711423
0.92201871 -1.2246199 -8.2407684 16777215
0.86706638 -1.2275844 -8.2220325 16777215
0.75347292 -1.222001 -8.9295206 16711422
0.63218588 -1.2273903 -8.9352369 14803439
0.55993807 -1.2240098 -8.9512138 12500185
0.53363341 -1.2214066 -8.3420105 15987706
0.53314686 -1.2243994 -8.4116879 16514046
0.53007525 -1.2238609 -8.7558384 14671349
0.14819287 -1.2242434 -8.5582819 16711422
0.031259276 -1.2223558 -8.7368193 16382461
-0.15492007 -1.2247409 -8.7329521 16711422
-0.27072009 -1.2246107 -7.7724943 16777215
-0.78003168 -1.2242202 -7.8513536 15921653
-0.98189211 -1.2299107 -8.532443 16711422
-1.0374341 -1.2251484 -9.0480299 16777215
-1.0529798 -1.2241714 -8.9571457 16777215
-1.0788482 -1.2228155 -8.7975454 16777215
-1.0757422 -1.2240655 -8.8629913 16777215
-1.1420273 -1.2286795 -8.4461994 16711422
-1.2568934 -1.2245394 -9.0649843 16184316
-1.2845647 -1.2279379 -8.6219587 16711423
-1.2913027 -1.2267197 -8.8544331 16777215
-1.3518661 -1.226679 -8.9446735 16777215
-1.4535108 -1.2241836 -8.9478331 16711422
-1.5317872 -1.2226996 -8.7378855 16118522
-1.5423872 -1.2221109 -8.9614096 16711679
-1.557104 -1.2248331 -8.6532784 15130864
-1.9095103 -1.2259362 -9.2609377 16777215
-2.041904 -1.2239898 -8.8430805 16710910
-2.2513163 -1.2278379 -8.845417 12950935
-2.3444843 -1.2219317 -8.955802 14593702
-3.029819 -1.2221497 -11.32258 10650747
-3.2511234 -1.2212085 -11.247975 11569275
-3.3521843 -1.2207826 -11.148921 10451567
-3.5634007 -1.2240314 -11.136046 9334889
-3.6524925 -1.2268459 -11.141298 10190458
-3.7475286 -1.2204945 -11.146079 11045252
-3.8485403 -1.2246138 -11.142709 9794669
-4.9529128 -1.2212638 -10.947866 4669752
-5.031034 -1.2272874 -10.733114 4342578
-5.0312638 -1.2219387 -10.857074 4406578
-5.2401886 -1.2220737 -10.612677 5853255
-5.3395429 -1.2232859 -10.535942 3225135
3.7174659 -1.2110722 -11.237909 11512527
2.4789281 -1.211534 -11.387551 11578064
1.7800376 -1.2102916 -11.542463 10262200
1.3408138 -1.2160877 -8.4412622 16777215
1.3128155 -1.2124708 -8.5441494 16777215
1.3082318 -1.2109169 -8.6461592 16777215
0.85987377 -1.216566 -8.7731133 16711423
0.79455251 -1.2109317 -7.924139 14539248
0.62740815 -1.2131605 -8.5919323 14408689
0.55756927 -1.214839 -8.6550131 12895458
0.53305334 -1.2146542 -9.0146074 13948665
0.42252001 -1.2168436 -8.6167231 14670832
0.15195879 -1.2128415 -8.6468992 14933999
-0.12059046 -1.2130411 -9.2251568 16777215
-0.22168325 -1.2176663 -9.1481104 16777215
-0.36525267 -1.2176601 -8.3547888 16711422
-0.53956753 -1.2115258 -9.0875702 16777215
-0.76887167 -1.216549 -9.1808214 16711679
-0.80768138 -1.2191627 -7.8392434 16645886
-0.96160465 -1.2155013 -9.0553694 16711423
-1.0240592 -1.2162856 -8.5440359 16777215
-1.0317086 -1.2160376 -8.4478636 16777215
-1.1832646 -1.2107166 -9.2477903 16777215
-1.3491513 -1.2187016 -9.0495682 16711679
-1.5289394 -1.2193863 -8.85357 16711422
-1.5458263 -1.2106546 -9.0356464 16777215
-1.6434152 -1.2193953 -8.7463684 14802409
-1.6484489 -1.2174333 -8.9147549 16711679
-1.6522472 -1.2114938 -9.0595322 16777215
-1.660871 -1.2164208 -8.836338 16711422
-1.6670095 -1.2169684 -9.1515703 16777215
-1.7106791 -1.2185937 -8.9604015 16777215
-1.7401526 -1.2102871 -9.1359091 16777215
-1.7573014 -1.2173924 -8.709693 12958161
-1.9678445 -1.2161996 -8.8316164 16315644
-1.9787586 -1.2130642 -9.3559437 16777215
-2.0712523 -1.2128896 -8.9229307 16777215
-2.107455 -1.2113575 -8.9135752 16777215
-2.1581798 -1.2110465 -8.8413067 13610922
-2.1517134 -1.2188368 -9.2263632 14867689
-2.1502333 -1.2188206 -9.3392544 15788529
-2.2786281 -1.2147323 -8.9457874 14134178
-2.4381351 -1.214179 -9.0402756 13278869
-2.5124922 -1.2127478 -9.1497822 11568254
-2.9816139 -1.2173018 -11.312177 9140071
-3.1420906 -1.2158802 -11.230491 10912633
-3.3419673 -1.2173512 -11.244851 11239799
-3.9356914 -1.2107662 -11.132077 8415068
-4.0498857 -1.2168021 -11.047209 8217182
-4.1505861 -1.2175153 -11.019415 7298136
-4.2477303 -1.2175883 -11.032897 7627612
-4.3338685 -1.213097 -11.048835 6246469
-4.338294 -1.2110703 -11.103861 7363917
-4.352282 -1.2165327 -10.960015 6773074
-4.5618625 -1.2158054 -11.02352 7298395
-4.64465 -1.2119936 -11.019448 9071978
-4.7483559 -1.2173568 -10.912076 5194296
-4.8691683 -1.21649 -10.913464 4275250
-5.0245419 -1.2126548 -10.941429 3618601
-5.4336252 -1.2166419 -10.511778 2304285
-5.4560757 -1.2159506 -10.450748 2568489
2.8210139 -1.2088407 -11.507976 9999794
2.2360802 -1.2068908 -11.423713 11645397
2.1241894 -1.2095608 -11.544343 11053005
2.087903 -1.2082478 -11.622728 11843033
1.7703273 -1.20972 -11.620474 10260155
1.7694769 -1.2074726 -11.41024 9605037
1.4163657 -1.2075263 -8.4261904 16777215
1.3022668 -1.2012802 -8.7295113 16777215
1.212231 -1.2089558 -8.9100227 16777215
0.85802275 -1.2087847 -7.8750253 14671337
0.80070001 -1.2009104 -10.169666 16777215
0.49076572 -1.2068766 -8.9516869 14408691
0.4846516 -1.2040275 -8.7891521 15462140
0.48582435 -1.2082257 -8.8632555 14802417
0.3310788 -1.2049187 -8.7237196 12038090
0.27268741 -1.2004969 -8.8106184 14147325
0.26635906 -1.2097108 -8.7409201 13026010
0.18548939 -1.2011894 -8.7303267 13290482
-0.058567539 -1.2017835 -9.0987997 16777215
-0.057472497 -1.2038099 -9.1949997 16777215
-0.12116576 -1.2002246 -9.0914745 16777215
-0.12091018 -1.2070218 -9.1369228 16777215
-0.34789655 -1.2075857 -9.1317911 16777215
-0.38671488 -1.2082288 -9.338913 16777215
-0.55511355 -1.2099952 -9.1682091 16777215
-1.1365467 -1.2086011 -9.0643826 16579838
-1.1857308 -1.2022505 -9.109354 14605049
-1.2806944 -1.2024602 -8.7652369 16777215
-1.4498472 -1.2081579 -9.0413876 16777215
-1.7023023 -1.2030559 -8.8357 16579583
-1.758514 -1.2088045 -9.0755291 16777215
-1.8168876 -1.2018185 -9.133378 16777215
-2.0780282 -1.2057447 -9.3267365 16777215
-2.1094103 -1.202903 -9.1280584 15525626
-2.1399062 -1.2010068 -9.0303478 14669801
-2.1880956 -1.2023746 -9.4088678 16777214
-2.3639328 -1.2080239 -9.0189896 14397354
-3.2719884 -1.2012339 -11.309721 11175029
-3.3314991 -1.200863 -11.306887 10254450
-3.424386 -1.2084821 -11.122499 9990763
-4.0213461 -1.2054567 -11.134878 6836554
-4.4355607 -1.2060453 -11.00404 9467502
-5.5032883 -1.2095095 -10.4355 2636084
3.1203222 -1.1972704 -11.484076 11973844
3.0364914 -1.1923822 -11.358371 12039644
2.8119926 -1.190588 -11.524112 9605038
2.2442353 -1.1914638 -11.377181 10987468
1.4355018 -1.1973149 -8.3922338 16777215
0.93263304 -1.190572 -8.7704973 16580350
0.89613235 -1.1953942 -7.810617 16777215
0.81423599 -1.1918569 -7.9324632 16777215
0.78089756 -1.1921211 -8.0349903 16711679
0.56372517 -1.1923691 -8.1640968 14012910
0.55130118 -1.1909424 -8.9948339 15922941
0.51305252 -1.1948036 -8.5494003 11642829
0.51927537 -1.196287 -8.6104012 12433115
0.50733632 -1.1927 -8.4753647 13551838
0.49482179 -1.1957248 -8.4602184 15395066
0.21233711 -1.1985205 -8.6835928 13025479
0.13746926 -1.1943084 -8.6848783 11446472
-0.1388353 -1.19152 -8.7676716 16777215
-0.23665789 -1.1980928 -8.1547003 16777215
-0.40757459 -1.1924429 -8.370182 16777215
-0.42431429 -1.1904091 -8.2468567 16777214
-0.9978469 -1.1958363 -8.2305994 16711423
-1.0732745 -1.1950762 -8.8549576 16777215
-1.0801181 -1.1947292 -8.9430923 16777215
-1.1418718 -1.1913072 -8.5222588 16645117
-1.2338368 -1.1926879 -9.0627384 15000055
-1.2757264 -1.1967065 -8.629797 16777215
-1.2924197 -1.1987537 -8.8349304 16777215
-1.3541957 -1.1909447 -9.0898933 16777215
-1.4463105 -1.1949649 -9.0824299 16777215
-1.5596106 -1.1989819 -8.8688211 16777215
-1.5588127 -1.1958439 -8.9870472 16777215
-1.5665288 -1.1984823 -8.5847692 15460599
-1.6604378 -1.1905088 -8.6905193 15457773
-1.7290473 -1.1911378 -8.6931343 12366036
-1.7795651 -1.1976103 -9.0598478 16777215
-2.2188907 -1.1984385 -8.8880901 12885142
-3.3930106 -1.1931788 -11.191946 9335406
-3.681 -1.1908752 -11.195103 11508127
-4.0490713 -1.1923505 -11.099166 6115144
-4.4340153 -1.1922629 -10.985991 8217434
-4.8001547 -1.1983157 -10.888102 2895906
-5.0715327 -1.1928222 -10.674277 4013106
-5.3752818 -1.1975709 -10.071733 2698028
-5.3997774 -1.1924379 -10.111492 2698030
4.1476803 -1.1846435 -11.324046 11446479
3.4498153 -1.1887146 -11.533569 10986699
3.3378177 -1.1888829 -11.525063 9934257
3.2431555 -1.1883534 -11.520881 11381457
3.2299147 -1.181532 -11.487934 11842014
2.6693363 -1.1876239 -11.533454 11842267
2.1865554 -1.18865 -11.388123 11447509
2.1089554 -1.1811264 -11.706127 10986181
1.3770298 -1.1813743 -8.4816284 16777215
1.2551441 -1.1876718 -8.7621241 16711422
1.1460546 -1.1830367 -8.8631039 16382461
1.0730387 -1.1832575 -8.8836279 14670306
0.92123276 -1.187675 -8.8710747 14076115
0.86288798 -1.1877708 -8.8528872 14406106
0.847202 -1.1864406 -8.1276875 16777215
0.73723382 -1.1886194 -8.9729776 16316411
0.65221971 -1.1811103 -8.9736433 16711422
0.51566821 -1.1892425 -8.3484516 16251133
0.49320805 -1.1857284 -8.3583431 14671865
0.47217423 -1.1876818 -8.5513115 14604531
0.25046274 -1.1808373 -8.8405914 16251133
0.23853949 -1.188555 -8.7612791 13224422
0.14808895 -1.1831434 -8.7555161 14343151
0.059109084 -1.1854218 -8.7597704 16514302
-0.03612081 -1.1807412 -8.9735374 16777215
-0.052307028 -1.1879655 -8.7704248 16777215
-0.050715763 -1.1836874 -9.0601969 16777215
-0.1260183 -1.1826705 -8.1139526 16777215
-0.13630077 -1.1809666 -8.0358629 16711678
-0.35480371 -1.1838759 -8.2587395 16777215
-0.51221365 -1.1854819 -8.8998451 16777215
-0.51277351 -1.1898911 -9.0218725 16777215
-0.5214107 -1.1895587 -8.9374819 16777215
-0.53795999 -1.1815494 -9.1818275 16777215
-0.59909391 -1.1842178 -8.2622051 16777215
-0.65943998 -1.1831602 -9.1769133 16777215
-0.74157751 -1.1829455 -8.3601637 16645630
-0.77483332 -1.1865078 -8.4340973 16777215
-0.94933331 -1.1852016 -8.5121861 16777215
-1.0214263 -1.1846042 -8.5415783 16777215
-1.0707552 -1.1898197 -8.7512178 16777215
-1.1474267 -1.182583 -8.9537058 16316413
-1.5612286 -1.1835064 -9.0659475 16777215
-1.5841492 -1.1882451 -8.6819077 15395833
-1.6488802 -1.1835617 -8.9510794 16777215
-1.6643122 -1.183514 -8.8538799 16711422
-1.7419783 -1.1809629 -8.8387289 15330553
-1.7576926 -1.1818802 -8.7330647 11050422
-1.7557226 -1.184962 -8.9480886 16711422
-1.8255804 -1.1849643 -9.0424118 16777215
-1.8416522 -1.1854398 -8.7614212 12300223
-2.1526542 -1.1844871 -8.8840752 14137780
-2.4333475 -1.185863 -9.0847101 14396831
-3.2287009 -1.1827334 -11.291912 11504776
-3.3743434 -1.1878117 -11.270792 9728872
-3.748404 -1.1825024 -11.182944 10653083
-3.8466682 -1.185703 -11.182888 8219483
-3.951587 -1.1824851 -11.172791 5524029
-4.1458898 -1.1839561 -11.058576 7758686
-4.2547774 -1.1830022 -11.079665 7233622
-4.6990018 -1.1891203 -10.959064 5129276
-4.9470253 -1.1860076 -10.977159 3356967
-5.1882787 -1.1881337 -10.586758 3620146
-5.4354811 -1.183478 -10.167176 3158841
4.062499 -1.1779469 -11.238584 11973595
4.0519547 -1.176343 -11.157321 10985922
4.0108075 -1.1711324 -11.096159 10723778
3.690742 -1.1733215 -11.195625 10591931
3.3367634 -1.178982 -11.47756 9935028
2.9310634 -1.172328 -11.257285 10921678
2.8515708 -1.1766329 -11.421951 9605291
2.3546453 -1.1712471 -11.384739 11184073
1.7617521 -1.1791747 -11.53392 10262718
1.7342844 -1.1767776 -11.263564 15592434
1.4173909 -1.1714317 -8.4588871 16777215
1.1546549 -1.1702411 -8.9579344 15396085
1.1144388 -1.1724951 -8.7561464 16711422
1.0491037 -1.1720434 -8.9518061 10656176
1.0147853 -1.1763812 -7.7309532 16711679
0.76435512 -1.1704904 -7.9626107 16711166
0.74571121 -1.1731335 -9.0501966 16579838
0.61892909 -1.1702878 -8.0380516 12565977
0.55199957 -1.1763456 -9.0543833 14539495
0.43246832 -1.1761426 -8.6543512 14210290
0.38679498 -1.176742 -8.6654053 12038346
0.35030332 -1.1767616 -8.7598963 13355234
0.3436206 -1.172029 -8.8572092 16382717
0.25234506 -1.17022 -8.9455023 16185084
0.046354942 -1.1733512 -8.8380346 16777214
-0.15113217 -1.1764306 -8.841094 16777215
-0.26078671 -1.1743704 -8.7553949 16777215
-0.33096781 -1.1731684 -9.079812 16711678
-0.3564786 -1.1750563 -8.9977283 16777215
-0.43452933 -1.1795537 -8.8786745 16777215
-0.45128065 -1.1764115 -8.9491158 16777215
-0.45823896 -1.1799419 -9.0551949 16777215
-0.65015328 -1.1728984 -9.2467728 16777215
-0.66989446 -1.1730779 -8.3244038 16579838
-0.70243984 -1.1794649 -8.2965899 16711423
-0.8482185 -1.1744939 -8.4444799 16711422
-0.84067845 -1.1776278 -8.5122061 16777215
-1.0198464 -1.1712552 -8.4780693 16777215
-1.0593274 -1.1792738 -8.3426704 16777214
-1.1362659 -1.1761334 -8.8436174 16579581
-1.1401585 -1.1751294 -9.058589 14802411
-1.1612558 -1.1739349 -8.4743338 16711422
-1.2240624 -1.174014 -8.4616413 16711422
-1.4461111 -1.1744889 -9.1557627 16711422
-1.5506856 -1.1709224 -9.1537809 16645630
-1.6085285 -1.1790394 -9.0607605 16777215
-1.6346912 -1.1743553 -8.7400579 16513790
-1.8393319 -1.1760553 -9.1701164 16777215
-2.0594265 -1.1731149 -8.9323444 16579582
-2.0624855 -1.1722094 -9.2852592 16777215
-2.3477795 -1.1745112 -9.0589294 13345178
-2.8840475 -1.1775482 -10.627734 6708052
-2.9235835 -1.175936 -11.196995 9273992
-2.9477537 -1.1761974 -11.275645 9208203
-3.4519653 -1.1776259 -11.155209 8416361
-3.5284774 -1.1723633 -11.169177 7630962
-4.0552988 -1.1731575 -11.157171 6247757
-4.4494553 -1.1716818 -11.050778 7890535
-4.5580812 -1.1763872 -11.068877 7102043
-4.7822199 -1.1758512 -10.896707 4472623
-5.072094 -1.1797363 -10.854675 3027752
-5.0806561 -1.1770608 -10.755948 3355433
-5.2185235 -1.1772507 -10.71305 3027239
3.8184803 -1.1667589 -11.172702 10393270
3.7553265 -1.1629919 -11.184971 10591420
3.1583376 -1.1643355 -11.520934 11907293
2.8876433 -1.1660897 -11.25688 10921934
2.745645 -1.1687865 -11.530585 10526653
2.2462125 -1.1622308 -11.447258 10526399
2.1102822 -1.1645379 -11.638936 11380941
1.8849025 -1.1640174 -11.358517 10722243
1.7491355 -1.1605718 -11.36453 15921398
1.3548753 -1.1617531 -8.6522007 16777215
1.1314176 -1.162966 -9.5081987 16711423
0.98732525 -1.1632271 -7.6610579 16777215
0.813317 -1.1664735 -10.240383 16777215
0.52597755 -1.1683012 -8.2505016 15987706
0.4411343 -1.1659048 -8.7430725 15198202
0.44249427 -1.1694072 -8.9641705 15921914
0.34893122 -1.1628866 -8.9490499 16316669
0.25773728 -1.1612321 -9.0681524 16448253
0.15142514 -1.1657971 -8.8322411 16448253
0.15087366 -1.1630952 -8.9450445 16645630
0.06246968 -1.1654863 -8.9502506 16711422
-0.054183479 -1.1692311 -8.8414888 16777215
-0.17117615 -1.1694276 -8.969141 16777215
-0.22680214 -1.1670913 -8.9542809 16711422
-0.2393661 -1.1673385 -8.8338556 16777215
-0.34299976 -1.1606753 -9.1653843 16645630
-0.41123492 -1.1652087 -8.1610174 16777215
-0.45522457 -1.1618747 -9.1516666 16776958
-0.63649195 -1.1635666 -8.255722 16579838
-0.68460822 -1.1616154 -9.4018335 16777215
-0.75147504 -1.1674535 -9.1675587 16579581
-1.0378897 -1.164258 -8.2596407 16711423
-1.048823 -1.1619352 -9.0664616 16381948
-1.1357259 -1.1655996 -8.7420549 16579326
-1.1625631 -1.1620171 -9.158145 14077930
-1.5852553 -1.1686536 -8.7373943 16316925
-1.659539 -1.1689254 -9.1633587 16777215
-1.747353 -1.1643378 -9.165905 16777215
-1.8470699 -1.1647711 -8.9356909 16711679
-1.9401011 -1.161397 -8.8406286 16053243
-2.0223694 -1.1693243 -8.8904572 16448253
-2.0438943 -1.1611669 -9.121336 16578045
-2.137532 -1.1672465 -9.2535248 16447740
-2.1572013 -1.1606482 -9.0479202 13617628
-2.2310495 -1.1674932 -8.9522696 12030603
-4.3718572 -1.1690294 -11.047687 7630192
-4.6498904 -1.1688855 -11.068819 7102297
-4.7504749 -1.1635289 -10.950213 4999228
-5.1597223 -1.1640098 -10.65801 3553327
-5.3778019 -1.1669443 -10.489986 3226676
-5.4677525 -1.1603621 -10.475659 3095608
-5.4788585 -1.1696533 -10.33744 3291963
3.9676266 -1.1578327 -11.330349 9801643
3.9254422 -1.1591771 -11.272633 10261939
3.6576231 -1.1523416 -11.24652 10131125
3.5416539 -1.1547018 -11.240407 10986696
3.5271661 -1.1573101 -11.53176 11381971
3.0485549 -1.1586457 -11.443818 11315664
2.945035 -1.1526271 -11.364528 11052751
2.539108 -1.157099 -11.349343 12105441
2.4493301 -1.1526242 -11.343746 12302820
2.3512094 -1.1576109 -11.446785 10460862
2.3519447 -1.1528437 -11.539707 9342120
2.1486084 -1.1550934 -11.553125 11117771
1.9215263 -1.1599314 -11.353825 9868471
1.8525026 -1.1511998 -11.459078 12235732
1.3627903 -1.1558291 -8.539422 16711422
1.3449411 -1.1586667 -8.7547178 16711422
1.2527602 -1.1595113 -8.8487291 16513789
1.1631283 -1.1515461 -9.059166 14276580
0.86208171 -1.1521409 -8.9590855 8549250
0.8398605 -1.1543282 -7.7537093 16711422
0.76375848 -1.1509701 -7.8514628 16514302
0.60408098 -1.1558073 -7.9920893 13618408
0.57812208 -1.1516736 -8.041626 13684456
0.43411699 -1.1592619 -8.8501225 15658489
0.43934005 -1.1535562 -9.0553322 16513788
0.1492787 -1.1552745 -9.0580645 16579581
0.040466007 -1.1530098 -9.0507832 16711422
-0.054674912 -1.1594585 -9.1490192 16711422
-0.14841346 -1.1549499 -7.9996371 16777215
-0.17185193 -1.1575699 -9.0479259 16777215
-0.25040379 -1.1529465 -9.0505581 16711422
-0.29474011 -1.15657 -8.6944103 16777215
-0.36523768 -1.1528578 -8.1517344 16711422
-0.74477655 -1.1563969 -9.2397919 16711422
-0.77051866 -1.1593274 -9.0625639 16251133
-0.83434027 -1.1592238 -9.2548027 16711679
-0.8595798 -1.1557106 -9.3551111 16711422
-0.91359979 -1.1534202 -8.9781847 16777215
-0.91599983 -1.1581115 -9.4068499 16777215
-0.93737453 -1.1547256 -8.4568768 16777215
-0.95635754 -1.1532044 -9.0611334 16777215
-1.2384363 -1.155745 -8.5000772 16777215
-1.250492 -1.1529599 -9.1618881 15527159
-1.3465352 -1.1553762 -9.1546822 16711422
-1.8592693 -1.1568401 -8.8498859 16579838
-1.9319888 -1.1535771 -9.0241194 16777215
-1.9496613 -1.150434 -9.1060162 16777215
-1.9680179 -1.153024 -9.2599401 16777215
-1.9650691 -1.1540388 -9.3473091 16711679
-1.9770308 -1.152205 -9.4550381 16711422
-2.0542846 -1.1509873 -9.3413801 16711423
-2.0617242 -1.159241 -9.0225382 16313847
-2.1451328 -1.1530044 -9.3600349 16645374
-2.1530607 -1.1519042 -8.9459829 10786193
-2.1650996 -1.1576854 -9.1362915 12168375
-3.0653334 -1.1573008 -11.291153 10389399
-3.1407142 -1.158246 -11.275582 12559275
-3.3549597 -1.1510108 -11.345297 11114409
-3.6464858 -1.1544064 -11.253728 10196140
-4.8427253 -1.1512679 -10.952035 3948080
-4.9580188 -1.1501756 -11.031517 2764577
-5.0361328 -1.1500227 -11.022497 2894885
-5.0654578 -1.1591442 -10.966794 2698529
-5.2635388 -1.1560179 -10.574178 3750962
-5.359498 -1.1545935 -10.558864 2765606
-5.4659829 -1.158712 -10.250053 3684924
-5.5129852 -1.1553637 -10.257803 3682611
4.1100254 -1.1453927 -11.429626 9735594
3.7423189 -1.1443828 -11.223413 10328248
3.4702616 -1.1484674 -11.444343 11183562
3.4566634 -1.1482024 -11.226305 11315920
3.4407299 -1.1467786 -11.363855 11447508
2.9480913 -1.1421458 -11.421991 11381972
2.8475549 -1.146899 -11.36844 10132410
2.5208726 -1.1440045 -11.270264 12236259
2.4340458 -1.144357 -11.295824 12959983
2.4151437 -1.1461318 -11.423727 11711706
2.1859655 -1.1440306 -11.453902 10592450
2.076843 -1.1437128 -11.645794 11315404
2.0273106 -1.1455019 -11.557801 11512786
1.9490165 -1.1451083 -11.439487 10921675
1.8486918 -1.1407235 -11.521047 10656960
1.1331768 -1.147135 -9.4396076 16645117
1.0445995 -1.1447889 -9.0457411 10196393
0.98965806 -1.1490788 -7.7476587 16777215
0.94947857 -1.1469082 -8.9466419 8286595
0.84672028 -1.1424786 -7.6805849 16449021
0.84232312 -1.1480565 -9.9581747 16777215
0.83202875 -1.1443907 -9.0504618 11379125
0.75519854 -1.1417739 -9.1399126 16382204
0.64180809 -1.1442506 -9.0494881 16447996
0.5499261 -1.1442245 -9.1416683 14342637
0.49823993 -1.1444763 -8.2644663 16250621
0.46172076 -1.1436024 -9.1403437 14473457
-0.34334818 -1.1428494 -9.2647667 15592437
-0.3870374 -1.1416031 -8.3604574 16777215
-0.42653152 -1.1474555 -8.4457598 16777215
-0.85264242 -1.1475911 -9.1643944 16711422
-0.93695509 -1.1447294 -9.1463537 16777215
-0.9577083 -1.146758 -9.2547264 16777215
-1.548278 -1.1437976 -9.2483921 16645886
-1.9406897 -1.1456256 -8.9670429 16777215
-1.9523624 -1.1478291 -9.5545654 16711166
-2.2464447 -1.1485943 -9.3728132 9733516
-2.2571681 -1.1428081 -9.0389385 9336948
-2.2573819 -1.1492178 -9.2672186 8483186
-3.0426583 -1.1489871 -11.330767 11313850
-3.258378 -1.143136 -11.332328 12825804
-3.55459 -1.1418086 -11.241689 10918572
-4.1382957 -1.1448538 -11.144803 6248268
-4.2541151 -1.1434201 -11.155584 6314575
-4.3492551 -1.1436421 -11.130788 6908781
-5.1508999 -1.1443044 -10.736375 3290411
-5.2367258 -1.1482619 -10.637176 3290667
3.8471572 -1.1333863 -11.230422 10393785
3.5386331 -1.1309798 -11.183784 10327991
3.1425829 -1.1305283 -11.633804 10988241
2.7616165 -1.1348709 -11.370767 10197431
2.751622 -1.1398399 -11.448389 10526911
2.655504 -1.1343825 -11.457664 11710681
1.9805901 -1.1346657 -11.514768 11184590
1.7681412 -1.1336224 -11.453035 15458801
1.2485081 -1.1358867 -8.9500914 16645630
1.1582389 -1.1304891 -9.1438923 14803691
1.0788352 -1.1328262 -9.1489449 13422560
0.77256376 -1.1308781 -10.011703 16777215
0.76469523 -1.1379412 -7.7558942 15593210
0.60606158 -1.1343899 -8.1064806 16580095
0.56342894 -1.1336811 -7.9698081 14605805
0.34926036 -1.1327854 -9.0482578 16645373
0.24142179 -1.1325213 -9.1360607 15724794
0.14871724 -1.1324254 -9.1452446 16514045
-0.14357144 -1.1382763 -9.1406212 16777215
-0.26499447 -1.136507 -9.2573071 15987446
-0.36145023 -1.1319523 -9.3164377 14341609
-0.3737883 -1.1398957 -8.0673552 16777215
-0.45304719 -1.1341393 -9.2472601 16711166
-0.54923171 -1.1398546 -9.2474995 16711422
-0.65037858 -1.1381972 -9.3488207 16579838
-0.72907996 -1.1353074 -9.3603973 16711422
-0.8486796 -1.1372082 -8.3820257 16777215
-0.84252381 -1.1340795 -9.0463305 16579837
-0.94697011 -1.1383572 -9.360486 16711422
-1.0638584 -1.1395535 -9.1276159 15328760
-1.108216 -1.1352793 -8.3628845 16777215
-1.1532996 -1.1327027 -9.2584572 14473969
-1.4499377 -1.1338713 -9.2468233 16645630
-1.6522889 -1.1366204 -9.2625599 16777215
-1.8446546 -1.1317778 -9.2367601 16711678
-2.256568 -1.1314735 -9.1252642 5721669
-2.356931 -1.1341869 -9.2523565 9601401
-2.3512738 -1.1331385 -9.3544445 9205102
-2.3616254 -1.1331527 -9.1395254 10585216
-2.445955 -1.1373086 -9.1303825 13738650
-2.8821816 -1.135692 -11.161875 9274262
-2.9644141 -1.1345923 -11.323198 11182522
-3.4269931 -1.1387875 -11.33879 10129572
-3.4544668 -1.137518 -11.246609 10788535
-3.7465861 -1.1399763 -11.24951 9668250
-3.8489335 -1.1391678 -11.238679 9931935
-3.9490201 -1.1375164 -11.226715 6448227
-4.4585342 -1.1336623 -11.136214 9932192
-4.5471449 -1.1368483 -11.164149 8813448
-4.7405443 -1.1387702 -11.047117 5197379
-5.1496005 -1.1311089 -10.853747 2960932
-5.3432684 -1.1344243 -10.603569 3161651
-5.4439998 -1.1341392 -10.536851 3423804
-5.5275879 -1.1394856 -10.449864 3027762
3.4332135 -1.1296701 -11.176806 10724038
3.3651927 -1.1259544 -11.065805 10986951
3.0922132 -1.1200944 -11.540073 10856399
2.2725134 -1.1292601 -11.514821 9934262
1.6833631 -1.1215472 -11.298825 14800104
1.3454045 -1.1242187 -8.8468323 16711422
1.1466336 -1.1274303 -9.2518892 16119802
1.1411097 -1.1205581 -9.3568039 16579837
0.84830266 -1.1214571 -10.02495 16777215
0.8227765 -1.1258733 -9.1452751 12564686
0.80675167 -1.1231023 -9.2086258 16315386
0.80954295 -1.1227148 -9.7265902 16711422
0.78954577 -1.1294161 -9.7295074 16711422
0.65924549 -1.1249863 -9.1451578 16645117
0.54394585 -1.1265447 -9.2440529 12368586
0.48806626 -1.1277419 -8.1782131 16777215
0.4691948 -1.1262438 -9.2423649 11577022
0.22845282 -1.1286978 -10.569662 16777215
0.04914356 -1.1239545 -9.1469975 16711422
-0.054647055 -1.1294732 -9.2564783 16645630
-0.11640329 -1.1271489 -9.2274504 16777215
-0.23753209 -1.1291463 -9.1472702 16711422
-0.41190779 -1.1257774 -9.3257465 16382716
-0.76578504 -1.1251307 -9.4402266 15262700
-0.84117198 -1.1291054 -9.4413977 16382203
-1.04681 -1.1210437 -9.2541695 14342897
-1.1499802 -1.1229943 -9.3502016 14605044
-1.1510118 -1.1200107 -9.4295015 15395578
-1.5439892 -1.1220849 -9.3441238 16711422
-1.7496442 -1.1227137 -9.2548027 16711422
-1.9461105 -1.1213683 -9.6382723 15723763
-1.9914706 -1.122345 -9.7382269 14274779
-2.0359142 -1.1277717 -9.7400656 16184313
-2.0458939 -1.1275138 -9.5481586 16645630
-2.0584133 -1.1247008 -9.4424839 16579838
-2.0536146 -1.1290076 -9.6501389 16711166
-2.256721 -1.1223376 -9.443244 10325126
-3.1538966 -1.1221474 -11.307957 13551071
-4.0460358 -1.128479 -11.215285 6515307
-4.6015644 -1.1260386 -11.205095 9010057
-4.6398125 -1.1207832 -11.138932 9473442
-4.7194581 -1.12114 -11.116597 8882582
-5.1409459 -1.1279508 -10.952995 2698529
-5.5288091 -1.1256298 -10.355844 3289139
1.4164768 -1.1199691 -8.7625628 16711422
1.4141568 -1.1142206 -8.8274031 16645630
1.4093993 -1.1141802 -8.670002 16777215
1.240768 -1.1150889 -9.0409393 16711422
1.0542834 -1.1159228 -9.3836346 16777215
1.0352741 -1.1120809 -9.4436684 16711422
0.84043765 -1.1196705 -9.5537939 16711166
0.82860547 -1.1181508 -9.6486845 16645373
0.7507903 -1.1136098 -9.2095823 16711422
0.75745589 -1.1174414 -9.6604576 16777215
0.73676175 -1.1198958 -9.3399496 16580093
0.5452655 -1.1154449 -9.3500023 16119547
0.51198429 -1.1134239 -9.6593151 16711166
0.47318923 -1.1194211 -9.3572874 16514044
0.30488586 -1.1182947 -9.1361618 16711678
0.14502659 -1.1148752 -9.2423925 13486560
0.045909502 -1.1130286 -9.2512112 14078440
-0.035522051 -1.1108723 -9.3251009 15723510
-0.27390563 -1.1132113 -9.3193283 14868717
-0.47860935 -1.110044 -9.8500957 16645886
-0.47388464 -1.1147376 -9.9581356 15460597
-0.48348299 -1.1138498 -10.056868 14208225
-0.58617002 -1.1154041 -9.3064413 16777215
-0.6270045 -1.1180354 -8.1541862 16711422
-0.84783596 -1.1155839 -8.9953718 16645886
-0.84309727 -1.1105472 -9.5279608 14670826
-0.96573317 -1.1114345 -8.3875132 16777215
-1.0453786 -1.1141453 -9.3581657 16448253
-1.3615285 -1.1100121 -9.2257528 16711422
-1.4670993 -1.1114384 -9.3293657 16645374
-1.5408837 -1.1156722 -9.4470234 16711422
-1.6445788 -1.1139544 -9.3401709 16777215
-1.7579764 -1.1123656 -9.6494627 16777215
-1.8373789 -1.1150769 -9.3387499 16580094
-1.8472834 -1.1116228 -9.4471321 16579581
-1.8407967 -1.1106981 -9.7230797 16118007
-1.8521106 -1.1137364 -9.6487617 16447997
-1.8630431 -1.113917 -9.5513048 16514045
-1.9253801 -1.1146572 -8.783597 15591413
-2.0404053 -1.1123406 -9.8305893 13944800
-2.149878 -1.1136739 -9.4397964 15854837
-2.2580819 -1.1119463 -9.5492783 9733497
-2.3511741 -1.1105777 -9.4405947 8417383
-2.4269912 -1.1117952 -9.2572174 14134175
-2.8886273 -1.1128067 -11.249069 9604772
-3.6347179 -1.1108139 -11.308632 11775438
-4.8419666 -1.1147718 -11.027672 3159594
-5.1397529 -1.1109691 -11.004203 2239003
-5.5208545 -1.1175392 -10.509743 3358268
-5.675086 -1.1181121 -10.532818 3683384
-5.7027931 -1.1138608 -10.560164 3616822
3.8386147 -1.1068553 -11.328594 10260663
1.6695799 -1.1039681 -11.346661 10724806
1.4041674 -1.1069686 -8.5431309 16777215
1.3082227 -1.1050791 -8.9259396 16777215
1.3019161 -1.1014687 -9.0102844 16777215
1.2402279 -1.1042155 -9.3405676 16777215
1.233999 -1.1003275 -9.2780008 16777215
1.212243 -1.1035398 -9.1153326 16777215
1.0730137 -1.1097995 -9.2376862 16777215
1.0186145 -1.1086055 -9.5244608 16777215
0.96618593 -1.1019119 -9.0016966 8879761
0.96147037 -1.104712 -9.4326544 16777215
0.95098168 -1.1078603 -9.3685179 16777215
0.86308199 -1.1053808 -9.3732586 16711422
0.86244369 -1.105167 -9.4398842 16711166
0.78666395 -1.106217 -7.6421003 16448509
0.73470426 -1.1061385 -9.5498657 16777215
0.6650604 -1.1060773 -9.4295712 16777215
0.62244338 -1.1086377 -9.3275852 16777215
0.61973596 -1.1047188 -9.2451649 16777214
0.47614992 -1.1089451 -9.4496746 16711423
0.47986838 -1.1069012 -9.5494604 16711679
0.45951992 -1.1084964 -9.6482258 16711678
0.21658574 -1.109014 -9.2099295 14868721
0.21764976 -1.1002724 -10.417829 16777215
0.11328997 -1.1053227 -9.3128729 14871291
0.053705603 -1.1052282 -9.3108349 13949167
-0.38346419 -1.1041417 -8.41751 16777215
-0.50701892 -1.1023933 -9.8070135 16776958
-0.50106353 -1.1015013 -9.9754171 16645887
-0.7759307 -1.1068237 -9.5257254 11509952
-1.2386979 -1.107528 -9.2305346 16645630
-1.2317575 -1.106578 -9.36234 16580094
-1.2464443 -1.104793 -9.4462643 16711422
-1.27926 -1.1042999 -9.5338812 16777215
-1.3132052 -1.1017172 -9.460268 16711423
-1.3242941 -1.1043357 -9.5524511 16645374
-1.5449771 -1.1072389 -9.522974 16777215
-1.6465178 -1.10478 -9.4218597 16777215
-1.6737356 -1.1057268 -9.5395737 16777215
-1.7102886 -1.1002719 -9.4961042 16777215
-1.7495662 -1.108314 -9.5492239 16777215
-1.7502213 -1.1069713 -9.352994 16711423
-1.7836125 -1.1061341 -9.7062302 16777215
-2.1777792 -1.1071481 -9.5104427 16251134
-2.2835231 -1.1057271 -9.6312284 6904139
-2.306251 -1.1072904 -9.5430784 7036757
-2.3106632 -1.1046863 -9.6227417 6313803
-2.4383109 -1.1071827 -9.3447762 14462631
-3.4283507 -1.1041754 -11.40321 11379636
-3.5667746 -1.1022061 -11.308076 12036299
-4.1252995 -1.1090109 -11.216211 9935020
-4.2428832 -1.1085312 -11.206163 6254452
-4.5453653 -1.1016451 -11.208006 8484227
-5.2120471 -1.1067133 -10.982536 2962215
-5.2105122 -1.1073103 -11.024607 2434847
2.7635221 -1.094533 -11.528086 10723524
1.4088848 -1.0912941 -8.8490934 14144752
1.3938327 -1.0980515 -8.5515871 16777215
1.2662197 -1.0966802 -9.0808821 16777215
1.2590123 -1.0905498 -9.1472025 16777215
1.2544917 -1.0936853 -9.2476892 16777215
1.1981281 -1.0978863 -9.2207823 16777215
0.86380315 -1.0968506 -9.3023071 16777215
0.80822808 -1.0980982 -7.6015725 16777215
0.71738237 -1.0932504 -9.5594931 16777215
0.58212405 -1.0959313 -8.0237398 16317438
0.42948818 -1.0951819 -9.5507574 16711679
0.40646017 -1.0935947 -9.0895195 14146292
-0.097875111 -1.0985821 -9.2816248 16315130
-0.19819808 -1.09706 -9.0843277 16777215
-0.21147366 -1.0907592 -9.1538649 16579581
-0.35560116 -1.0931716 -8.0433798 16777215
-0.36673859 -1.0917057 -9.2969322 11642826
-0.39291087 -1.0901095 -8.3718548 16777215
-0.43940103 -1.0900081 -8.4074202 16777215
-0.65140039 -1.098956 -8.1909657 16777215
-0.70971429 -1.0950725 -9.3998995 16645887
-0.85611975 -1.0951914 -8.9226189 16777215
-0.86570609 -1.0976578 -8.3245087 16777215
-1.2192419 -1.0935854 -9.4831944 16579837
-1.2602565 -1.0937198 -9.2550125 16777214
-1.2855942 -1.0938592 -9.3459511 16777215
-1.3607835 -1.091014 -9.4463491 16711422
-1.4017388 -1.095345 -9.2817535 16447229
-1.4350399 -1.0913373 -9.3531799 16645630
-1.579091 -1.0983471 -9.3684473 16777215
-1.6353965 -1.092106 -9.4521761 16777215
-1.6718947 -1.0919348 -9.3743315 16777215
-1.7532314 -1.0987055 -9.3853226 16777215
-1.7579244 -1.0938439 -9.4351244 16777215
-1.7991542 -1.0998654 -9.2383604 16514045
-1.8134763 -1.0908929 -9.3032045 16711422
-1.8168142 -1.0981191 -9.4588127 16711423
-1.8484508 -1.0910138 -9.2600822 16711423
-1.9039562 -1.0934857 -8.9041729 16777215
-2.0031109 -1.0941174 -8.8397684 16643838
-2.0867078 -1.0909652 -8.9151487 16777214
-2.0832889 -1.0945545 -9.6797867 16776959
-2.0980129 -1.0964932 -9.5239182 16711166
-2.1511831 -1.0919744 -9.5558462 16050163
-2.2185347 -1.0968364 -9.5623569 15655129
-2.3462152 -1.093078 -9.4774523 9469040
-2.407011 -1.0990566 -9.3688002 14661291
-2.4435666 -1.0908042 -9.449295 10253417
-2.6027954 -1.0987377 -9.8547602 12423817
-2.6205168 -1.0981023 -9.910491 12884117
-4.8441343 -1.0905759 -10.989217 2829603
-5.6138954 -1.0965395 -10.483312 3750205
-5.7191577 -1.0904415 -10.596089 3485489
4.0323091 -1.0852718 -11.499318 10655414
3.9103646 -1.0852531 -11.242789 11118023
3.6098526 -1.0883752 -11.19621 10393786
3.5350058 -1.0839739 -11.182951 10130359
1.7193835 -1.0877104 -11.397182 16710398
1.3540702 -1.082029 -8.9536772 16645373
1.2639209 -1.0825979 -9.3601503 16711422
1.0351114 -1.0803821 -9.1053762 16777215
1.016161 -1.0809427 -9.0485258 15790582
0.84004635 -1.0827696 -9.1313992 16579837
0.81558245 -1.0864543 -9.2302952 16710910
0.7748037 -1.0869617 -7.584137 16316926
0.76307297 -1.0874926 -9.2073154 16711422
0.74943805 -1.083342 -7.6500831 16711422
0.74896371 -1.0819776 -9.1556301 16711165
0.71460468 -1.0861762 -9.4298058 16777215
0.70750064 -1.0898747 -7.7816086 16777215
0.64105654 -1.086423 -9.0744686 16645630
0.55825174 -1.0845599 -7.9694023 15987709
0.45480365 -1.0863879 -9.4403591 16448253
0.44160858 -1.0822258 -9.3521194 15395573
0.41148496 -1.0820863 -9.1632719 13288921
0.20717691 -1.0839261 -10.348183 16777215
0.16289781 -1.0806948 -9.2702112 14934771
-0.05669336 -1.0891663 -9.3523951 16579837
-0.14622468 -1.0832618 -9.4586706 16645630
-0.15551619 -1.081602 -9.2449036 15855349
-0.17387031 -1.088094 -9.1529198 16711422
-0.21976092 -1.0864938 -9.2597818 13485541
-0.53204304 -1.0891513 -9.2875814 16185082
-0.63410485 -1.0838399 -9.3768711 16447997
-0.71750695 -1.0873114 -9.472085 15987190
-0.84530616 -1.0813029 -9.555953 15330035
-0.92164844 -1.0871415 -8.3258467 16777215
-1.0403552 -1.0849503 -9.3888397 16711422
-1.1543617 -1.0828826 -8.3076849 16711423
-1.150888 -1.0804822 -9.4530344 16184828
-1.3406689 -1.086017 -9.2534666 16711166
-1.3504952 -1.0870218 -9.355773 16711422
-1.3552638 -1.0836685 -9.5602751 16645374
-1.4489554 -1.0852616 -9.4577093 16711679
-1.582258 -1.0818403 -9.4566622 16711679
-1.8510404 -1.0897789 -8.8245544 16777215
-1.8672898 -1.0893673 -9.6644354 15392751
-1.874581 -1.0829096 -9.152256 16777215
-1.929951 -1.08991 -9.6570988 12231345
-1.934209 -1.0832911 -9.7540188 12230568
-2.116708 -1.0831093 -8.8797035 14009278
-2.1427574 -1.088968 -8.9283161 10522765
-2.3553298 -1.0863479 -9.5434675 8417638
-2.4469943 -1.0814587 -9.5449734 10453114
-2.5195942 -1.089094 -9.5554008 8283745
-2.5270135 -1.0819157 -9.6524448 13542812
-4.166101 -1.0893996 -11.186046 7304315
-4.7944698 -1.0835533 -10.995211 4409148
-4.9930964 -1.0894824 -10.981407 3091237
-5.2093873 -1.0820279 -10.954901 3027749
-5.2155719 -1.083878 -11.02943 2435102
